25.104 243.237 -806.843
25.1178 243.237 -806.843
25.0908 243.297 -806.84
25.0905 243.317 -806.84
25.0904 243.337 -806.839
25.0622 243.357 -806.838
25.0761 243.357 -806.838
25.0627 243.377 -806.837
25.0765 243.377 -806.837
25.0622 243.397 -806.836
25.0761 243.397 -806.837
25.0624 243.417 -806.836
25.0762 243.417 -806.836
25.0483 243.437 -806.835
25.0623 243.437 -806.835
25.0761 243.437 -806.835
25.049 243.477 -806.833
25.0209 243.497 -806.832
25.0347 243.497 -806.832
25.0487 243.497 -806.833
25.021 243.517 -806.832
25.0348 243.517 -806.832
25.0486 243.517 -806.832
25.0213 243.537 -806.831
25.0351 243.537 -806.831
25.0488 243.537 -806.831
25.007 243.557 -806.83
25.0215 243.557 -806.83
25.0354 243.557 -806.83
25.0066 243.577 -806.829
25.0211 243.577 -806.829
25.0349 243.577 -806.83
25.0065 243.597 -806.829
25.0073 243.617 -806.828
24.9789 243.637 -806.827
24.9927 243.637 -806.827
25.0067 243.637 -806.827
24.979 243.657 -806.826
24.9928 243.657 -806.826
24.9792 243.677 -806.825
24.993 243.677 -806.826
24.9653 243.697 -806.824
24.9653 243.717 -806.824
24.9656 243.737 -806.823
24.9376 243.757 -806.822
24.9514 243.757 -806.822
24.9657 243.757 -806.822
24.9375 243.777 -806.821
24.9514 243.777 -806.821
24.9652 243.777 -806.822
24.9385 243.797 -806.82
24.9523 243.797 -806.821
24.938 243.817 -806.82
24.9518 243.817 -806.82
24.9235 243.837 -806.819
24.9374 243.837 -806.819
24.9512 243.837 -806.819
24.9233 243.857 -806.818
24.9238 243.877 -806.817
24.8962 243.897 -806.816
24.91 243.897 -806.816
24.9238 243.897 -806.817
24.896 243.916 -806.816
24.9098 243.917 -806.816
24.8969 243.937 -806.815
24.9108 243.937 -806.815
24.8815 243.956 -806.814
24.8969 243.957 -806.814
24.9107 243.957 -806.814
24.8816 243.976 -806.813
24.8963 243.977 -806.813
24.9102 243.977 -806.814
24.8821 243.996 -806.813
24.8822 244.016 -806.812
24.8541 244.036 -806.811
24.8679 244.036 -806.811
24.8543 244.056 -806.81
24.8682 244.056 -806.81
24.8551 244.077 -806.809
24.869 244.077 -806.81
24.8398 244.096 -806.808
24.855 244.096 -806.809
24.8688 244.096 -806.809
24.8401 244.116 -806.808
24.8119 244.156 -806.806
24.8257 244.156 -806.806
24.812 244.176 -806.805
24.8258 244.176 -806.805
24.7982 244.236 -806.803
24.799 244.256 -806.802
24.7992 244.276 -806.801
24.7709 244.296 -806.8
24.7847 244.296 -806.8
24.799 244.296 -806.801
24.7709 244.316 -806.8
24.7847 244.316 -806.8
24.7717 244.336 -806.799
24.7855 244.336 -806.799
24.7572 244.356 -806.798
24.7715 244.356 -806.798
24.7576 244.376 -806.797
24.7713 244.376 -806.797
24.7578 244.396 -806.797
24.7583 244.416 -806.796
24.7301 244.436 -806.795
24.7439 244.436 -806.795
24.7303 244.456 -806.794
24.7441 244.456 -806.794
24.7302 244.476 -806.793
24.7156 244.496 -806.792
24.7297 244.496 -806.793
24.7156 244.516 -806.792
24.7159 244.536 -806.791
24.6882 244.556 -806.79
24.702 244.556 -806.79
24.6883 244.576 -806.789
24.7022 244.576 -806.789
24.6878 244.596 -806.788
24.6736 244.615 -806.787
24.6879 244.616 -806.788
24.6741 244.636 -806.787
24.6744 244.656 -806.786
24.6459 244.675 -806.785
24.6597 244.675 -806.785
24.646 244.695 -806.784
24.6599 244.695 -806.784
24.6463 244.715 -806.784
24.6325 244.735 -806.783
24.6467 244.736 -806.783
24.6318 244.755 -806.782
24.6313 244.775 -806.781
24.6041 244.795 -806.78
24.6179 244.795 -806.78
24.6043 244.815 -806.779
24.6181 244.815 -806.78
24.5899 244.835 -806.779
24.6044 244.835 -806.779
24.5899 244.855 -806.778
24.5914 244.875 -806.777
24.5617 244.895 -806.776
24.5756 244.895 -806.776
24.5628 244.915 -806.775
24.5766 244.915 -806.775
24.5636 244.935 -806.775
24.5491 244.955 -806.774
24.5641 244.955 -806.774
24.5496 244.975 -806.773
24.5497 244.995 -806.772
24.5208 245.015 -806.771
24.5347 245.015 -806.771
24.5211 245.035 -806.77
24.5349 245.035 -806.771
24.5217 245.055 -806.77
24.507 245.075 -806.769
24.522 245.075 -806.769
24.5071 245.095 -806.768
24.5075 245.115 -806.767
24.4797 245.155 -806.766
24.4935 245.155 -806.766
24.4796 245.175 -806.765
24.4654 245.195 -806.764
24.4661 245.215 -806.763
24.4377 245.255 -806.761
24.4515 245.255 -806.762
24.4381 245.275 -806.761
24.4381 245.295 -806.76
24.4236 245.314 -806.759
24.4239 245.334 -806.758
24.396 245.374 -806.757
24.4098 245.374 -806.757
24.3961 245.394 -806.756
24.3817 245.434 -806.754
24.3537 245.474 -806.752
24.3675 245.474 -806.753
24.3543 245.494 -806.752
24.3545 245.514 -806.751
24.3402 245.534 -806.75
24.3401 245.554 -806.749
24.3122 245.594 -806.747
24.3127 245.614 -806.747
24.2983 245.654 -806.745
24.2709 245.714 -806.743
24.2289 245.814 -806.738
24.2288 245.833 -806.738
24.1875 245.913 -806.734
24.1875 245.933 -806.734
24.1733 245.973 -806.732
24.1454 246.013 -806.73
24.1458 246.033 -806.729
24.132 246.073 -806.728
24.1041 246.113 -806.726
24.1179 246.113 -806.726
24.1046 246.133 -806.725
24.0901 246.173 -806.724
24.0627 246.233 -806.721
24.0486 246.273 -806.72
24.0209 246.333 -806.717
24.0066 246.373 -806.715
23.9791 246.433 -806.713
23.9655 246.473 -806.711
23.9374 246.532 -806.709
23.923 246.572 -806.707
23.8952 246.632 -806.705
23.8816 246.672 -806.703
23.854 246.732 -806.7
23.8401 246.772 -806.699
23.8128 246.832 -806.696
23.7989 246.872 -806.695
23.7718 246.932 -806.692
-0.286572 268.117 -805.592
-0.272741 268.117 -805.592
-0.341495 268.137 -805.59
-0.424575 268.157 -805.588
-0.410122 268.157 -805.589
-0.493763 268.177 -805.587
-0.479934 268.177 -805.587
-0.577475 268.197 -805.585
-0.563645 268.197 -805.585
-0.550004 268.197 -805.585
-0.632519 268.216 -805.583
-0.618373 268.216 -805.583
-0.742625 268.236 -805.581
-0.728795 268.236 -805.581
-0.714902 268.236 -805.581
-0.701581 268.236 -805.582
-0.687751 268.236 -805.582
-0.7846 268.256 -805.58
-0.77077 268.256 -805.58
-0.757643 268.256 -805.58
-0.867235 268.276 -805.578
-0.853405 268.276 -805.578
-0.838868 268.276 -805.578
-0.950186 268.295 -805.576
-0.936357 268.295 -805.576
-0.922916 268.295 -805.576
-0.909407 268.296 -805.576
-1.03333 268.315 -805.574
-1.01951 268.315 -805.574
-1.00567 268.315 -805.574
-0.992492 268.315 -805.575
-0.978661 268.315 -805.575
-1.08843 268.335 -805.572
-1.07376 268.335 -805.573
-1.05993 268.335 -805.573
-1.04714 268.335 -805.573
-1.17178 268.355 -805.571
-1.15834 268.355 -805.571
-1.14451 268.355 -805.571
-1.13009 268.355 -805.571
-1.25341 268.374 -805.569
-1.23991 268.374 -805.569
-1.22608 268.374 -805.569
-1.21258 268.375 -805.569
-1.20066 268.375 -805.569
-1.33603 268.394 -805.567
-1.32319 268.394 -805.567
-1.30936 268.394 -805.567
-1.2958 268.394 -805.567
-1.28296 268.395 -805.568
-1.26913 268.395 -805.568
-1.42083 268.414 -805.565
-1.4068 268.414 -805.565
-1.39297 268.414 -805.565
-1.37908 268.414 -805.565
-1.36385 268.414 -805.566
-1.35003 268.414 -805.566
-1.48929 268.434 -805.563
-1.47546 268.434 -805.563
-1.46223 268.434 -805.564
-1.44913 268.434 -805.564
-1.4353 268.434 -805.564
-1.42161 268.434 -805.564
-1.57284 268.454 -805.561
-1.55901 268.454 -805.561
-1.54605 268.454 -805.562
-1.53202 268.454 -805.562
-1.51819 268.454 -805.562
-1.50463 268.454 -805.562
-1.65599 268.473 -805.559
-1.64216 268.473 -805.56
-1.62894 268.474 -805.56
-1.61558 268.474 -805.56
-1.60175 268.474 -805.56
-1.58765 268.474 -805.56
-1.73881 268.493 -805.557
-1.72498 268.493 -805.558
-1.71162 268.493 -805.558
-1.69807 268.493 -805.558
-1.68424 268.493 -805.558
-1.67088 268.494 -805.558
-1.65752 268.494 -805.559
-1.79396 268.513 -805.556
-1.78054 268.513 -805.556
-1.76671 268.513 -805.556
-1.75268 268.513 -805.557
-1.7396 268.513 -805.557
-1.87746 268.533 -805.554
-1.86418 268.533 -805.554
-1.85035 268.533 -805.554
-1.83672 268.533 -805.555
-1.8233 268.533 -805.555
-1.9591 268.552 -805.552
-1.94693 268.553 -805.552
-1.9331 268.553 -805.553
-1.9194 268.553 -805.553
-1.9053 268.553 -805.553
-1.89147 268.553 -805.553
-2.04392 268.572 -805.55
-2.03002 268.572 -805.55
-2.01619 268.573 -805.551
-2.00311 268.573 -805.551
-1.9899 268.573 -805.551
-1.97607 268.573 -805.551
-2.15369 268.592 -805.548
-2.13987 268.592 -805.548
-2.12701 268.592 -805.548
-2.11387 268.592 -805.549
-2.10004 268.592 -805.549
-2.08559 268.592 -805.549
-2.07266 268.592 -805.549
-2.05883 268.593 -805.549
-2.20996 268.612 -805.546
-2.19697 268.612 -805.547
-2.18314 268.612 -805.547
-2.16938 268.612 -805.547
-2.15527 268.612 -805.547
-2.14144 268.612 -805.547
-2.29327 268.632 -805.545
-2.27866 268.632 -805.545
-2.26483 268.632 -805.545
-2.25247 268.632 -805.545
-2.23787 268.632 -805.545
-2.22404 268.632 -805.546
-2.37453 268.651 -805.543
-2.36161 268.652 -805.543
-2.34778 268.652 -805.543
-2.33501 268.652 -805.543
-2.32188 268.652 -805.543
-2.30805 268.652 -805.544
-2.48591 268.671 -805.54
-2.47208 268.671 -805.541
-2.45846 268.671 -805.541
-2.44463 268.671 -805.541
-2.4308 268.671 -805.541
-2.41761 268.671 -805.541
-2.40442 268.672 -805.542
-2.39059 268.672 -805.542
-2.56943 268.691 -805.538
-2.5556 268.691 -805.539
-2.54177 268.691 -805.539
-2.52894 268.691 -805.539
-2.51511 268.691 -805.539
-2.50014 268.691 -805.539
-2.48695 268.691 -805.54
-2.69438 268.711 -805.536
-2.68055 268.711 -805.536
-2.66672 268.711 -805.536
-2.65296 268.711 -805.536
-2.63912 268.711 -805.537
-2.62544 268.711 -805.537
-2.61218 268.711 -805.537
-2.59835 268.711 -805.537
-2.58352 268.711 -805.538
-2.57054 268.711 -805.538
-2.74902 268.73 -805.534
-2.73634 268.731 -805.535
-2.72251 268.731 -805.535
-2.70904 268.731 -805.535
-2.69506 268.731 -805.535
-2.68123 268.731 -805.535
-2.66826 268.731 -805.536
-2.86006 268.75 -805.532
-2.84623 268.75 -805.532
-2.83334 268.75 -805.533
-2.81872 268.75 -805.533
-2.80489 268.75 -805.533
-2.79105 268.75 -805.533
-2.77852 268.751 -805.533
-2.76469 268.751 -805.534
-2.75014 268.751 -805.534
-2.95765 268.77 -805.53
-2.9425 268.77 -805.53
-2.92867 268.77 -805.531
-2.91499 268.77 -805.531
-2.90189 268.77 -805.531
-2.88806 268.77 -805.531
-2.87379 268.77 -805.531
-2.86148 268.77 -805.531
-2.84765 268.77 -805.532
-3.06848 268.79 -805.528
-3.05465 268.79 -805.528
-3.04104 268.79 -805.528
-3.02714 268.79 -805.528
-3.0133 268.79 -805.529
-2.99801 268.79 -805.529
-2.98484 268.79 -805.529
-2.97101 268.79 -805.529
-2.95827 268.79 -805.529
-2.94429 268.79 -805.53
-2.93046 268.79 -805.53
-3.16483 268.809 -805.526
-3.15122 268.809 -805.526
-3.13739 268.81 -805.526
-3.12356 268.81 -805.526
-3.10958 268.81 -805.526
-3.09575 268.81 -805.527
-3.08213 268.81 -805.527
-3.06955 268.81 -805.527
-3.05572 268.81 -805.527
-3.0413 268.81 -805.527
-3.2747 268.829 -805.523
-3.26087 268.829 -805.524
-3.24689 268.829 -805.524
-3.23447 268.829 -805.524
-3.22064 268.829 -805.524
-3.20651 268.829 -805.524
-3.19334 268.829 -805.525
-3.17951 268.829 -805.525
-3.16524 268.829 -805.525
-3.15244 268.83 -805.525
-3.1386 268.83 -805.525
-3.1247 268.83 -805.526
-3.37267 268.849 -805.521
-3.35884 268.849 -805.521
-3.34501 268.849 -805.522
-3.33073 268.849 -805.522
-3.31764 268.849 -805.522
-3.30381 268.849 -805.522
-3.29035 268.849 -805.522
-3.27585 268.849 -805.523
-3.26202 268.849 -805.523
-3.249 268.849 -805.523
-3.48299 268.869 -805.519
-3.46916 268.869 -805.519
-3.45472 268.869 -805.519
-3.44104 268.869 -805.52
-3.42721 268.869 -805.52
-3.41458 268.869 -805.52
-3.4015 268.869 -805.52
-3.38766 268.869 -805.52
-3.37279 268.869 -805.521
-3.35895 268.869 -805.521
-3.34512 268.869 -805.521
-3.33137 268.869 -805.521
-3.62217 268.888 -805.516
-3.60683 268.888 -805.516
-3.593 268.888 -805.517
-3.57992 268.888 -805.517
-3.56624 268.888 -805.517
-3.55241 268.888 -805.517
-3.53858 268.888 -805.517
-3.52467 268.888 -805.518
-3.51084 268.888 -805.518
-3.49753 268.889 -805.518
-3.48355 268.889 -805.518
-3.46972 268.889 -805.518
-3.45566 268.889 -805.519
-3.44213 268.889 -805.519
-3.4283 268.889 -805.519
-3.41522 268.889 -805.519
-3.40139 268.889 -805.519
-3.68977 268.908 -805.515
-3.67594 268.908 -805.515
-3.66196 268.908 -805.515
-3.64904 268.908 -805.515
-3.63521 268.908 -805.515
-3.62229 268.908 -805.516
-3.60815 268.908 -805.516
-3.59432 268.908 -805.516
-3.58011 268.908 -805.516
-3.56658 268.908 -805.516
-3.55275 268.908 -805.517
-3.53884 268.908 -805.517
-3.52501 268.908 -805.517
-3.51118 268.909 -805.517
-3.8136 268.927 -805.512
-3.79977 268.928 -805.512
-3.78693 268.928 -805.512
-3.77333 268.928 -805.513
-3.7595 268.928 -805.513
-3.74613 268.928 -805.513
-3.73275 268.928 -805.513
-3.71892 268.928 -805.513
-3.70448 268.928 -805.514
-3.69042 268.928 -805.514
-3.67659 268.928 -805.514
-3.66291 268.928 -805.514
-3.64999 268.928 -805.514
-3.63616 268.928 -805.515
-3.62195 268.928 -805.515
-3.60743 268.928 -805.515
-3.5936 268.928 -805.515
-3.91107 268.947 -805.51
-3.89701 268.947 -805.51
-3.88318 268.947 -805.51
-3.8695 268.947 -805.511
-3.85674 268.948 -805.511
-3.84291 268.948 -805.511
-3.82923 268.948 -805.511
-3.81593 268.948 -805.511
-3.8021 268.948 -805.512
-3.78827 268.948 -805.512
-3.77345 268.948 -805.512
-3.75962 268.948 -805.512
-3.74716 268.948 -805.512
-3.70596 268.948 -805.513
-4.03574 268.967 -805.508
-4.02113 268.967 -805.508
-4.0073 268.967 -805.508
-3.99471 268.967 -805.508
-3.9808 268.967 -805.508
-3.96697 268.967 -805.508
-3.95275 268.967 -805.509
-3.94 268.967 -805.509
-3.92617 268.967 -805.509
-3.91249 268.967 -805.509
-3.89881 268.967 -805.509
-3.88498 268.968 -805.51
-3.87099 268.968 -805.51
-3.85808 268.968 -805.51
-3.84425 268.968 -805.51
-3.81682 268.968 -805.511
-3.80298 268.968 -805.511
-4.20042 268.986 -805.504
-4.18706 268.986 -805.505
-4.17323 268.987 -805.505
-4.16041 268.987 -805.505
-4.14666 268.987 -805.505
-4.13283 268.987 -805.505
-4.11822 268.987 -805.506
-4.10486 268.987 -805.506
-4.09102 268.987 -805.506
-4.07642 268.987 -805.506
-4.06336 268.987 -805.506
-4.04953 268.987 -805.507
-4.03701 268.987 -805.507
-4.02342 268.987 -805.507
-4.00958 268.987 -805.507
-3.99645 268.987 -805.507
-3.98207 268.987 -805.508
-3.96824 268.987 -805.508
-3.95441 268.987 -805.508
-3.91384 268.988 -805.509
-3.89954 268.988 -805.509
-4.27024 269.006 -805.503
-4.25641 269.006 -805.503
-4.24234 269.006 -805.503
-4.23 269.007 -805.503
-4.21617 269.007 -805.503
-4.20218 269.007 -805.504
-4.18819 269.007 -805.504
-4.17436 269.007 -805.504
-4.1624 269.007 -805.504
-4.1481 269.007 -805.504
-4.13427 269.007 -805.505
-4.1066 269.007 -805.505
-4.09277 269.007 -805.505
-4.07878 269.007 -805.505
-4.06441 269.007 -805.506
-4.05058 269.007 -805.506
-4.03814 269.007 -805.506
-4.39491 269.026 -805.5
-4.38108 269.026 -805.5
-4.36764 269.026 -805.501
-4.35444 269.026 -805.501
-4.34061 269.026 -805.501
-4.32654 269.026 -805.501
-4.31342 269.026 -805.501
-4.29959 269.026 -805.502
-4.28677 269.027 -805.502
-4.27098 269.026 -805.502
-4.25715 269.026 -805.502
-4.2441 269.026 -805.502
-4.23137 269.027 -805.503
-4.21753 269.027 -805.503
-4.20268 269.027 -805.503
-4.1894 269.027 -805.503
-4.17557 269.027 -805.503
-4.16267 269.027 -805.504
-4.14915 269.027 -805.504
-4.13532 269.027 -805.504
-4.55948 269.045 -805.497
-4.54565 269.045 -805.497
-4.53214 269.045 -805.498
-4.51902 269.046 -805.498
-4.5052 269.046 -805.498
-4.49216 269.046 -805.498
-4.47833 269.046 -805.498
-4.4645 269.046 -805.499
-4.45051 269.046 -805.499
-4.43723 269.046 -805.499
-4.4234 269.046 -805.499
-4.41036 269.046 -805.499
-4.39566 269.046 -805.5
-4.38183 269.046 -805.5
-4.36949 269.046 -805.5
-4.35566 269.046 -805.5
-4.34183 269.046 -805.5
-4.27267 269.047 -805.501
-4.25884 269.047 -805.501
-4.24532 269.047 -805.502
-4.23125 269.047 -805.502
-4.64418 269.065 -805.495
-4.63035 269.065 -805.495
-4.61596 269.065 -805.496
-4.60277 269.065 -805.496
-4.58894 269.065 -805.496
-4.5755 269.066 -805.496
-4.56191 269.066 -805.496
-4.54808 269.066 -805.497
-4.53496 269.066 -805.497
-4.52081 269.066 -805.497
-4.50698 269.066 -805.497
-4.49386 269.066 -805.497
-4.47948 269.066 -805.498
-4.46564 269.066 -805.498
-4.45284 269.066 -805.498
-4.43909 269.066 -805.498
-4.42526 269.066 -805.498
-4.76781 269.085 -805.493
-4.75398 269.085 -805.493
-4.74168 269.085 -805.493
-4.72777 269.085 -805.493
-4.71394 269.085 -805.494
-4.70099 269.085 -805.494
-4.68659 269.085 -805.494
-4.67276 269.085 -805.494
-4.65957 269.085 -805.494
-4.64502 269.085 -805.495
-4.63119 269.085 -805.495
-4.61704 269.085 -805.495
-4.60392 269.086 -805.495
-4.59009 269.086 -805.495
-4.57722 269.086 -805.495
-4.56322 269.086 -805.496
-4.54939 269.086 -805.496
-4.53596 269.086 -805.496
-4.52181 269.086 -805.496
-4.50797 269.086 -805.496
-4.9077 269.105 -805.49
-4.8937 269.105 -805.49
-4.87987 269.105 -805.49
-4.86555 269.105 -805.491
-4.85124 269.105 -805.491
-4.83741 269.105 -805.491
-4.82414 269.105 -805.491
-4.81096 269.105 -805.491
-4.79712 269.105 -805.492
-4.78378 269.105 -805.492
-4.76866 269.105 -805.492
-4.75482 269.105 -805.492
-4.7422 269.105 -805.492
-4.72861 269.105 -805.493
-4.71478 269.105 -805.493
-4.70167 269.105 -805.493
-4.68823 269.105 -805.493
-4.6744 269.105 -805.493
-4.66041 269.105 -805.494
-4.64578 269.105 -805.494
-4.63194 269.105 -805.494
-4.61883 269.106 -805.494
-4.60524 269.106 -805.494
-4.5914 269.106 -805.495
-4.57773 269.106 -805.495
-4.56406 269.106 -805.495
-5.03173 269.124 -805.488
-5.01896 269.124 -805.488
-5.00512 269.124 -805.488
-4.9917 269.125 -805.488
-4.97779 269.125 -805.488
-4.96396 269.125 -805.489
-4.94964 269.125 -805.489
-4.93605 269.125 -805.489
-4.92221 269.125 -805.489
-4.90863 269.125 -805.489
-4.89463 269.125 -805.49
-4.8808 269.125 -805.49
-4.86697 269.125 -805.49
-4.85459 269.125 -805.49
-4.84076 269.125 -805.49
-4.82684 269.125 -805.49
-4.81261 269.125 -805.491
-4.79877 269.125 -805.491
-4.78486 269.125 -805.491
-4.76966 269.125 -805.491
-4.75583 269.125 -805.492
-4.74377 269.125 -805.492
-4.72977 269.125 -805.492
-4.71594 269.125 -805.492
-5.18317 269.144 -805.485
-5.16934 269.144 -805.485
-5.15551 269.144 -805.485
-5.14258 269.144 -805.485
-5.12875 269.144 -805.485
-5.115 269.144 -805.486
-5.10273 269.144 -805.486
-5.08889 269.144 -805.486
-5.07506 269.144 -805.486
-5.06131 269.144 -805.486
-5.04748 269.144 -805.487
-5.03365 269.144 -805.487
-5.02063 269.145 -805.487
-5.00679 269.145 -805.487
-4.99288 269.145 -805.487
-4.89548 269.145 -805.489
-4.88165 269.145 -805.489
-4.8683 269.145 -805.489
-5.30868 269.164 -805.482
-5.29485 269.164 -805.482
-5.28027 269.164 -805.483
-5.26727 269.164 -805.483
-5.25344 269.164 -805.483
-5.23936 269.164 -805.483
-5.22561 269.164 -805.483
-5.21178 269.164 -805.484
-5.19787 269.164 -805.484
-5.18502 269.164 -805.484
-5.17119 269.164 -805.484
-5.15809 269.164 -805.484
-5.14443 269.164 -805.484
-5.13059 269.164 -805.485
-5.1166 269.164 -805.485
-4.93775 269.165 -805.487
-4.92392 269.165 -805.488
-5.44637 269.183 -805.479
-5.43287 269.183 -805.48
-5.41904 269.183 -805.48
-5.40463 269.183 -805.48
-5.39146 269.183 -805.48
-5.37763 269.183 -805.48
-5.36405 269.183 -805.481
-5.35204 269.184 -805.481
-5.33821 269.184 -805.481
-5.32404 269.184 -805.481
-5.30913 269.184 -805.482
-5.2953 269.184 -805.482
-5.28189 269.184 -805.482
-5.26921 269.184 -805.482
-5.25537 269.184 -805.482
-5.24146 269.184 -805.482
-5.22746 269.184 -805.483
-5.21363 269.184 -805.483
-5.6004 269.203 -805.477
-5.58657 269.203 -805.477
-5.5734 269.203 -805.477
-5.55865 269.203 -805.477
-5.54482 269.203 -805.477
-5.5304 269.203 -805.478
-5.51682 269.203 -805.478
-5.50299 269.203 -805.478
-5.48857 269.203 -805.478
-5.47558 269.203 -805.478
-5.46174 269.203 -805.479
-5.44757 269.203 -805.479
-5.43458 269.203 -805.479
-5.42074 269.203 -805.479
-5.40674 269.203 -805.479
-5.39324 269.203 -805.48
-5.37941 269.204 -805.48
-5.72366 269.222 -805.474
-5.70983 269.223 -805.474
-5.696 269.223 -805.474
-5.68326 269.223 -805.475
-5.66943 269.223 -805.475
-5.65627 269.223 -805.475
-5.64294 269.223 -805.475
-5.62911 269.223 -805.475
-5.61469 269.223 -805.476
-5.60086 269.223 -805.476
-5.58702 269.223 -805.476
-5.57395 269.223 -805.476
-5.55877 269.223 -805.477
-5.54494 269.223 -805.477
-5.53094 269.223 -805.477
-5.49045 269.223 -805.477
-5.44953 269.223 -805.478
-5.4352 269.223 -805.478
-5.42137 269.223 -805.478
-5.40828 269.224 -805.479
-5.86245 269.242 -805.471
-5.84836 269.242 -805.472
-5.83453 269.242 -805.472
-5.82044 269.242 -805.472
-5.80669 269.242 -805.472
-5.79286 269.242 -805.472
-5.78115 269.243 -805.473
-5.76672 269.243 -805.473
-5.75289 269.243 -805.473
-5.72607 269.243 -805.473
-5.71223 269.243 -805.474
-5.69806 269.243 -805.474
-5.68499 269.243 -805.474
-5.67116 269.243 -805.474
-5.65707 269.243 -805.474
-6.05562 269.262 -805.468
-6.04179 269.262 -805.468
-6.02796 269.262 -805.468
-6.01438 269.262 -805.469
-6.00055 269.262 -805.469
-5.98714 269.262 -805.469
-5.97365 269.262 -805.469
-5.95982 269.262 -805.469
-5.94565 269.262 -805.469
-5.93173 269.262 -805.47
-5.9179 269.262 -805.47
-5.90305 269.262 -805.47
-5.89066 269.262 -805.47
-5.87683 269.262 -805.471
-5.86367 269.262 -805.471
-5.80936 269.263 -805.471
-5.79553 269.263 -805.472
-6.15248 269.281 -805.466
-6.13882 269.281 -805.466
-6.12499 269.281 -805.466
-6.11159 269.281 -805.466
-6.09853 269.282 -805.467
-6.0847 269.282 -805.467
-6.07035 269.282 -805.467
-6.05617 269.282 -805.467
-6.04234 269.282 -805.467
-6.02834 269.282 -805.468
-6.01545 269.282 -805.468
-6.00162 269.282 -805.468
-5.9877 269.282 -805.468
-5.97455 269.282 -805.468
-5.96071 269.282 -805.469
-5.94765 269.282 -805.469
-5.93305 269.282 -805.469
-5.91922 269.282 -805.469
-5.90436 269.282 -805.469
-5.89215 269.282 -805.47
-5.87831 269.282 -805.47
-6.34713 269.301 -805.462
-6.33329 269.301 -805.463
-6.31894 269.301 -805.463
-6.30537 269.301 -805.463
-6.29153 269.301 -805.463
-6.27744 269.301 -805.463
-6.26344 269.301 -805.464
-6.2496 269.301 -805.464
-6.23577 269.301 -805.464
-6.22237 269.301 -805.464
-6.20854 269.301 -805.464
-6.19488 269.301 -805.464
-6.18191 269.301 -805.465
-6.16808 269.301 -805.465
-6.1539 269.301 -805.465
-6.14084 269.302 -805.465
-6.12701 269.302 -805.466
-6.11292 269.302 -805.466
-6.07185 269.302 -805.466
-6.0569 269.302 -805.466
-6.04307 269.302 -805.467
-6.03018 269.302 -805.467
-6.01694 269.302 -805.467
-6.00311 269.302 -805.467
-5.97476 269.302 -805.468
-5.96092 269.302 -805.468
-6.51298 269.32 -805.459
-6.49915 269.32 -805.459
-6.48593 269.321 -805.46
-6.47166 269.321 -805.46
-6.45783 269.321 -805.46
-6.44399 269.321 -805.46
-6.42981 269.321 -805.46
-6.41598 269.321 -805.461
-6.40293 269.321 -805.461
-6.38971 269.321 -805.461
-6.37588 269.321 -805.461
-6.36152 269.321 -805.461
-6.34734 269.321 -805.462
-6.33351 269.321 -805.462
-6.32089 269.321 -805.462
-6.3074 269.321 -805.462
-6.29357 269.321 -805.462
-6.2793 269.321 -805.463
-6.2646 269.321 -805.463
-6.25077 269.321 -805.463
-6.23806 269.321 -805.463
-6.2244 269.321 -805.463
-6.21057 269.321 -805.464
-6.19613 269.321 -805.464
-6.18238 269.321 -805.464
-6.16855 269.321 -805.464
-6.14166 269.322 -805.465
-6.12782 269.322 -805.465
-6.07223 269.322 -805.466
-6.05848 269.322 -805.466
-6.04465 269.322 -805.466
-6.69355 269.34 -805.456
-6.67945 269.34 -805.456
-6.66562 269.34 -805.456
-6.6502 269.34 -805.457
-6.63681 269.34 -805.457
-6.62297 269.34 -805.457
-6.60844 269.34 -805.457
-6.59504 269.34 -805.457
-6.58121 269.34 -805.458
-6.56826 269.34 -805.458
-6.55566 269.34 -805.458
-6.54183 269.34 -805.458
-6.52764 269.34 -805.458
-6.5139 269.341 -805.458
-6.50006 269.341 -805.459
-6.48623 269.341 -805.459
-6.47284 269.341 -805.459
-6.459 269.341 -805.459
-6.44543 269.341 -805.459
-6.40445 269.341 -805.46
-6.36191 269.341 -805.461
-6.34929 269.341 -805.461
-6.33546 269.341 -805.461
-6.96936 269.359 -805.451
-6.95553 269.359 -805.451
-6.94152 269.359 -805.452
-6.9284 269.359 -805.452
-6.91456 269.359 -805.452
-6.89993 269.359 -805.452
-6.88734 269.36 -805.452
-6.87351 269.36 -805.453
-6.8595 269.36 -805.453
-6.84549 269.36 -805.453
-6.83165 269.36 -805.453
-6.81836 269.36 -805.453
-6.80408 269.36 -805.454
-6.79024 269.36 -805.454
-6.77677 269.36 -805.454
-6.764 269.36 -805.454
-6.75016 269.36 -805.454
-6.73633 269.36 -805.455
-6.7217 269.36 -805.455
-6.70786 269.36 -805.455
-6.69385 269.36 -805.455
-6.68117 269.36 -805.455
-6.66734 269.36 -805.456
-6.65165 269.36 -805.456
-6.63958 269.36 -805.456
-6.62575 269.36 -805.456
-6.6098 269.36 -805.456
-6.59535 269.36 -805.457
-6.58152 269.36 -805.457
-6.56944 269.36 -805.457
-6.55649 269.361 -805.457
-6.54265 269.361 -805.457
-6.51437 269.361 -805.458
-6.50054 269.361 -805.458
-6.48671 269.361 -805.458
-6.47322 269.361 -805.458
-6.45939 269.361 -805.459
-6.44608 269.361 -805.459
-7.09534 269.379 -805.449
-7.0815 269.379 -805.449
-7.06776 269.379 -805.449
-7.05356 269.379 -805.449
-7.03973 269.379 -805.45
-7.025 269.379 -805.45
-7.01161 269.379 -805.45
-6.99778 269.379 -805.45
-6.98457 269.379 -805.45
-6.96993 269.379 -805.451
-6.9561 269.379 -805.451
-6.94308 269.379 -805.451
-6.92826 269.379 -805.451
-6.91442 269.379 -805.451
-6.90095 269.379 -805.452
-6.88774 269.38 -805.452
-6.87391 269.38 -805.452
-6.86016 269.38 -805.452
-6.84624 269.38 -805.452
-6.83241 269.38 -805.453
-6.81946 269.38 -805.453
-6.80492 269.38 -805.453
-6.79108 269.38 -805.453
-6.77698 269.38 -805.453
-6.76386 269.38 -805.453
-6.75003 269.38 -805.454
-6.73672 269.38 -805.454
-6.7228 269.38 -805.454
-6.70897 269.38 -805.454
-7.30242 269.398 -805.445
-7.28859 269.398 -805.445
-7.27421 269.398 -805.445
-7.25984 269.398 -805.446
-7.246 269.398 -805.446
-7.23208 269.398 -805.446
-7.21897 269.399 -805.446
-7.20514 269.399 -805.447
-7.19139 269.399 -805.447
-7.17702 269.399 -805.447
-7.16319 269.399 -805.447
-7.14962 269.399 -805.447
-7.13687 269.399 -805.447
-7.12304 269.399 -805.448
-7.1084 269.399 -805.448
-7.09492 269.399 -805.448
-7.08109 269.399 -805.448
-7.06744 269.399 -805.448
-7.05432 269.399 -805.449
-7.04049 269.399 -805.449
-7.02647 269.399 -805.449
-7.01273 269.399 -805.449
-6.9989 269.399 -805.449
-6.98489 269.399 -805.45
-6.97033 269.399 -805.45
-6.9565 269.399 -805.45
-6.94329 269.399 -805.45
-6.92901 269.399 -805.45
-6.91518 269.399 -805.451
-7.50905 269.418 -805.441
-7.49522 269.418 -805.442
-7.48083 269.418 -805.442
-7.46792 269.418 -805.442
-7.45408 269.418 -805.442
-7.44098 269.418 -805.442
-7.42706 269.418 -805.443
-7.41323 269.418 -805.443
-7.39921 269.418 -805.443
-7.3851 269.418 -805.443
-7.37127 269.418 -805.443
-7.35762 269.418 -805.444
-7.34405 269.418 -805.444
-7.33022 269.418 -805.444
-7.31602 269.418 -805.444
-7.30228 269.418 -805.444
-7.28845 269.418 -805.445
-7.27525 269.419 -805.445
-7.26078 269.419 -805.445
-7.24695 269.419 -805.445
-7.23456 269.419 -805.445
-7.21928 269.419 -805.446
-7.20545 269.419 -805.446
-7.19225 269.419 -805.446
-7.1776 269.419 -805.446
-7.16377 269.419 -805.446
-7.15075 269.419 -805.447
-7.13745 269.419 -805.447
-7.12362 269.419 -805.447
-7.11042 269.419 -805.447
-7.09514 269.419 -805.447
-7.08131 269.419 -805.448
-7.06802 269.419 -805.448
-7.05472 269.419 -805.448
-7.04089 269.419 -805.448
-6.98519 269.419 -805.449
-6.97127 269.419 -805.449
-6.95743 269.419 -805.449
-7.81509 269.437 -805.436
-7.80154 269.437 -805.437
-7.7877 269.437 -805.437
-7.77238 269.437 -805.437
-7.76004 269.437 -805.437
-7.7462 269.437 -805.437
-7.73218 269.437 -805.438
-7.71881 269.437 -805.438
-7.70498 269.438 -805.438
-7.69031 269.437 -805.438
-7.67657 269.437 -805.438
-7.66273 269.438 -805.438
-7.64982 269.438 -805.439
-7.6359 269.438 -805.439
-7.62206 269.438 -805.439
-7.60703 269.438 -805.439
-7.59218 269.438 -805.44
-7.57835 269.438 -805.44
-7.56571 269.438 -805.44
-7.55068 269.438 -805.44
-7.53685 269.438 -805.44
-7.52365 269.438 -805.44
-7.51065 269.438 -805.441
-7.49681 269.438 -805.441
-7.48234 269.438 -805.441
-7.46869 269.438 -805.441
-7.45486 269.438 -805.442
-7.4412 269.438 -805.442
-7.42728 269.438 -805.442
-7.41344 269.438 -805.442
-7.3997 269.438 -805.442
-7.38633 269.438 -805.443
-7.37249 269.438 -805.443
-7.35838 269.438 -805.443
-7.34482 269.438 -805.443
-7.33099 269.438 -805.443
-7.31743 269.438 -805.443
-7.30341 269.438 -805.444
-7.28958 269.439 -805.444
-7.27611 269.439 -805.444
-7.26109 269.439 -805.444
-7.24726 269.439 -805.444
-7.98161 269.457 -805.433
-7.96797 269.457 -805.433
-7.95413 269.457 -805.434
-7.9388 269.457 -805.434
-7.92468 269.457 -805.434
-7.91085 269.457 -805.434
-7.89748 269.457 -805.434
-7.88309 269.457 -805.435
-7.86926 269.457 -805.435
-7.85589 269.457 -805.435
-7.84196 269.457 -805.435
-7.82813 269.457 -805.435
-7.81448 269.457 -805.436
-7.80027 269.457 -805.436
-7.78644 269.457 -805.436
-7.77233 269.457 -805.436
-7.76008 269.457 -805.436
-7.74624 269.457 -805.437
-7.73194 269.457 -805.437
-7.71866 269.457 -805.437
-7.70483 269.457 -805.437
-7.67688 269.458 -805.438
-7.66305 269.458 -805.438
-7.64949 269.458 -805.438
-7.63566 269.458 -805.438
-7.62182 269.458 -805.438
-7.60826 269.458 -805.439
-7.59379 269.458 -805.439
-7.57995 269.458 -805.439
-7.56639 269.458 -805.439
-7.55256 269.458 -805.439
-7.53872 269.458 -805.44
-7.52526 269.458 -805.44
-7.51161 269.458 -805.44
-7.49777 269.458 -805.44
-7.48357 269.458 -805.44
-7.46955 269.458 -805.441
-7.45572 269.458 -805.441
-7.44124 269.458 -805.441
-7.42805 269.458 -805.441
-7.41421 269.458 -805.441
-7.40084 269.458 -805.442
-8.31293 269.476 -805.428
-8.29919 269.476 -805.428
-8.28535 269.476 -805.428
-8.27 269.476 -805.428
-8.25759 269.476 -805.429
-8.24375 269.476 -805.429
-8.22973 269.476 -805.429
-8.21571 269.476 -805.429
-8.20187 269.476 -805.429
-8.18775 269.476 -805.43
-8.17392 269.476 -805.43
-8.16009 269.476 -805.43
-8.14597 269.476 -805.43
-8.13251 269.476 -805.43
-8.11868 269.476 -805.431
-8.10588 269.476 -805.431
-7.96772 269.477 -805.433
-7.95389 269.477 -805.433
-7.93931 269.477 -805.433
-7.92547 269.477 -805.433
-7.91164 269.477 -805.434
-7.8979 269.477 -805.434
-7.88387 269.477 -805.434
-7.87004 269.477 -805.434
-7.85639 269.477 -805.434
-7.84349 269.477 -805.435
-7.82966 269.477 -805.435
-7.81508 269.477 -805.435
-7.80106 269.477 -805.435
-7.78722 269.477 -805.435
-7.73226 269.477 -805.436
-7.71898 269.477 -805.436
-7.70515 269.477 -805.437
-8.85212 269.494 -805.419
-8.83877 269.494 -805.42
-8.82494 269.494 -805.42
-8.81013 269.494 -805.42
-8.79708 269.495 -805.42
-8.78324 269.495 -805.42
-8.7697 269.495 -805.421
-8.7546 269.495 -805.421
-8.74077 269.495 -805.421
-8.72713 269.495 -805.421
-8.71301 269.495 -805.421
-8.69917 269.495 -805.422
-8.68417 269.495 -805.422
-8.67131 269.495 -805.422
-8.65748 269.495 -805.422
-8.64451 269.495 -805.422
-8.63019 269.495 -805.423
-8.61636 269.495 -805.423
-8.60175 269.495 -805.423
-8.59004 269.495 -805.423
-8.5762 269.495 -805.423
-8.56102 269.495 -805.424
-8.54757 269.495 -805.424
-8.53374 269.495 -805.424
-8.52058 269.495 -805.424
-8.50626 269.495 -805.424
-8.49243 269.495 -805.424
-8.47907 269.495 -805.425
-8.46601 269.495 -805.425
-8.45217 269.496 -805.425
-8.43604 269.495 -805.425
-8.42383 269.496 -805.425
-8.41 269.496 -805.426
-8.39702 269.496 -805.426
-8.38223 269.496 -805.426
-8.3684 269.496 -805.426
-8.35485 269.496 -805.427
-8.3413 269.496 -805.427
-8.32747 269.496 -805.427
-8.31401 269.496 -805.427
-8.29904 269.496 -805.427
-8.2852 269.496 -805.427
-8.27108 269.496 -805.428
-8.2582 269.496 -805.428
-8.24436 269.496 -805.428
-8.23024 269.496 -805.428
-8.2166 269.496 -805.428
-8.20276 269.496 -805.429
-8.1895 269.496 -805.429
-8.14771 269.496 -805.429
-8.1063 269.496 -805.43
-8.09256 269.496 -805.43
-8.07872 269.496 -805.43
-7.81586 269.497 -805.434
